# .PCD v0.7 - Point Cloud Data file format
VERSION 0.7
FIELDS x y z
SIZE 4 4 4
TYPE F F F
COUNT 1 1 1
WIDTH 1473
HEIGHT 1
VIEWPOINT 0 0 0 1 0 0 0
POINTS 1473
DATA ascii
-5.2641344 -11.293318 2.4134753
-7.1044812 -15.189965 2.0524411
-7.133553 -15.217587 0.87962854
-1.0316006 -2.1883538 -0.041531004
-0.85098356 -1.8040957 -0.17106017
-0.84255081 -1.7868671 -0.30697909
-0.86058903 -1.8302501 -0.4584755
-5.4588757 -11.663453 3.4370112
-5.3139615 -11.297086 2.4182417
-7.1151209 -15.075301 2.040267
-7.1727581 -15.163252 0.87792546
-1.0424412 -2.1915171 -0.041661736
-0.8575902 -1.8009647 -0.17106028
-0.85406137 -1.7950767 -0.30893198
-0.87456805 -1.8425055 -0.4624086
-5.5026474 -11.650879 3.4389493
-5.3659816 -11.305077 2.4239614
-7.0461407 -14.794944 2.0055718
-6.8971267 -14.44288 0.83759642
-1.0500846 -2.187865 -0.041661862
-0.86601824 -1.8024549 -0.17149509
-0.86032206 -1.7920845 -0.3089321
-0.87889975 -1.8350425 -0.46128502
-5.5411592 -11.621912 3.4363635
-5.4211564 -11.314111 2.4301577
-7.0515537 -14.674072 1.9924847
-6.9410014 -14.405222 0.83680999
-1.0598856 -2.1886899 -0.041749064
-0.87122345 -1.7971773 -0.17127785
-0.86657232 -1.7890705 -0.30893219
-0.88846451 -1.8385507 -0.46297067
-5.5702567 -11.58388 3.430546
-6.9685726 -14.37246 1.954746
-6.9287548 -14.258605 0.82960767
-1.0675192 -2.1849771 -0.041749194
-0.87935561 -1.7987584 -0.17171267
-0.87820691 -1.79714 -0.3108851
-0.88499707 -1.8158637 -0.45791402
-5.6106586 -11.564366 3.4305456
-6.9958153 -14.301233 1.9483541
-6.9740911 -14.225365 0.82908309
-1.0762404 -2.1834812 -0.041792855
-0.88923299 -1.8022312 -0.17236486
-0.88338798 -1.7918463 -0.31049466
-0.89485699 -1.819173 -0.45959973
-5.6265903 -11.494813 3.4156799
-7.0698385 -14.325686 1.9550487
-1.0772036 -2.1662695 -0.041531775
-0.89662325 -1.8013486 -0.17258233
-0.89182615 -1.7931788 -0.31127587
-0.89150137 -1.7963767 -0.45454314
-5.2197485 -10.564566 3.1442347
-7.582808 -15.278298 3.3063068
-7.1330652 -14.327582 1.9586999
-5.4754944 -10.966969 0.6410588
-1.0858752 -2.1647327 -0.041575443
-0.90735537 -1.807121 -0.17345189
-0.90359098 -1.8011031 -0.31322879
-0.90102267 -1.7997965 -0.45622882
-5.2795029 -10.596926 3.1590989
-7.6103783 -15.206974 3.2962954
-5.5079541 -10.964822 1.5006754
-5.5118318 -10.948752 0.64105815
-1.090052 -2.1542315 -0.041444968
-0.91110337 -1.7996528 -0.17301728
-0.90765268 -1.7935266 -0.31244779
-0.90480065 -1.792444 -0.45510519
-5.7661595 -11.474112 3.4273112
-7.6921539 -15.237283 3.3086884
-5.528264 -10.910107 1.4958053
-5.5353332 -10.900502 0.6393553
-1.0998293 -2.1548705 -0.041532177
-0.92220515 -1.8051833 -0.17388682
-0.91614282 -1.7947512 -0.31322902
-0.91136408 -1.7891157 -0.4551053
-5.8072677 -11.456067 3.4279566
-7.7619915 -15.24315 3.3158379
-5.570827 -10.899583 1.497022
-7.0337639 -13.729102 0.80721265
-1.1062045 -2.1487935 -0.041488774
-0.92963648 -1.8041699 -0.1741043
-0.92127687 -1.7893444 -0.31283858
-0.91095448 -1.7729074 -0.45173427
-5.850317 -11.436856 3.4286025
-7.8312612 -15.240795 3.321557
-7.0835934 -13.743476 1.8920472
-7.0232272 -13.591333 0.80053419
-1.1148461 -2.1471398 -0.041532449
-0.93821526 -1.8053389 -0.17453913
-0.92978299 -1.7905056 -0.31361979
-0.91490585 -1.7653857 -0.45061064
-5.8882117 -11.417394 3.4286017
-7.8964257 -15.243074 3.3277528
-7.0857692 -13.630584 1.8798729
-7.0267587 -13.488247 0.79581964
-1.1246449 -2.1476681 -0.041619658
-0.94764912 -1.8088436 -0.17519131
-0.93374616 -1.782869 -0.31283882
-0.92636973 -1.7731509 -0.45342004
-5.9358253 -11.41177 3.433125
-7.9609451 -15.237174 3.3325188
-7.0757294 -13.495866 1.8646555
-7.035502 -13.390692 0.79149801
-1.1340861 -2.1483524 -0.041706864
-0.9551158 -1.8077295 -0.17540881
-0.94226027 -1.783971 -0.31362003
-0.93707556 -1.778538 -0.45566761
-6.0081363 -11.453012 3.4518669
-8.0198011 -15.220148 3.3349013
-7.0752678 -13.38113 1.8521767
-7.0307994 -13.268971 0.78573602
-1.1486007 -2.1576328 -0.041968226
-0.96375257 -1.808786 -0.17584364
-0.9507935 -1.7850353 -0.31440127
-0.94441605 -1.7774099 -0.4562296
-7.0853119 -13.33237 2.9259031
-7.0775928 -13.273133 1.8406112
-7.0394449 -13.173876 0.78154528
-1.1620159 -2.164633 -0.042186052
-0.97006053 -1.8054109 -0.17584376
-0.96283567 -1.7925955 -0.31635419
-0.9563421 -1.784852 -0.45903903
-4.9246655 -9.2284994 2.7900589
-7.1016846 -13.251306 2.9135087
-7.0792513 -13.165285 1.8290457
-7.0439625 -13.072288 0.77696174
-4.4174948 -8.1875849 -0.16143437
-0.97871947 -1.8063983 -0.17627861
-0.96791607 -1.7870498 -0.31596377
-0.96371949 -1.7836487 -0.45960099
-4.959136 -9.2155075 2.7913506
-7.1234088 -13.181089 2.9034975
-7.0885177 -13.07286 1.8196104
-7.013309 -12.907202 0.76858109
-0.98382992 -1.8007827 -0.17606136
-0.96943361 -1.7749808 -0.31440163
-0.97110021 -1.7824157 -0.46016297
-4.9935765 -9.2023869 2.7926426
-7.0829487 -12.9544 1.8065231
-7.0415363 -12.851984 0.76674712
-0.99489683 -1.8060739 -0.17693092
-0.97562349 -1.7715861 -0.31440175
-0.97848397 -1.781153 -0.46072498
-5.0175605 -9.1700659 2.7881181
-7.0790353 -12.840486 1.7940446
-7.0658441 -12.79017 0.76452041
-1.0087385 -1.8154942 -0.17823522
-0.98418903 -1.7724928 -0.31518298
-0.98265398 -1.7732877 -0.45960134
-5.054203 -9.1609554 2.7907028
-7.067183 -12.713744 1.7797402
-7.0665221 -12.6813 0.75954407
-7.5188189 -13.482535 -0.26827815
-1.0150696 -1.8119619 -0.17823534
-0.98196113 -1.7539449 -0.31244919
-0.99238765 -1.776235 -0.46128708
-5.0853987 -9.1381483 2.7894096
-7.379631 -13.205489 2.9316182
-7.0785618 -12.624977 1.7709136
-7.055748 -12.558592 0.7536512
-7.5780792 -13.478 -0.26871443
-1.0226083 -1.8105789 -0.17845285
-1.0028931 -1.7761698 -0.31713605
-0.9973911 -1.7706348 -0.46072534
-5.1137238 -9.1140213 2.7874699
-7.4485583 -13.220281 2.9406743
-7.0615678 -12.492164 1.7556962
-7.0712585 -12.483914 0.75063884
-7.0620518 -12.457529 -0.24881849
-1.0350598 -1.8178333 -0.17953978
-1.0163871 -1.7855505 -0.31947955
-1.0071598 -1.7735057 -0.46241102
-5.143919 -9.0970125 2.7874706
-7.4863024 -13.184835 2.9382918
-7.0747218 -12.419078 1.7486974
-7.0742726 -12.39317 0.74658096
-7.0769835 -12.382878 -0.24781619
-1.043869 -1.8185345 -0.17997435
-1.027198 -1.7907493 -0.3210417
-1.009728 -1.7636286 -0.46072534
-5.1672773 -9.064312 2.7829459
-7.5603065 -13.207617 2.9492548
-7.0920925 -12.349111 1.7423056
-7.1358323 -12.395291 0.74828213
-7.1388717 -12.390594 -0.24847016
-1.0526956 -1.8191966 -0.18040922
-1.0334425 -1.7871528 -0.32104182
-1.0219423 -1.7706566 -0.46353477
-5.2004652 -9.0453119 2.7829452
-7.5608377 -13.096914 2.9306631
-0.67178762 1.1600523 -0.25356624
-0.6676383 1.1551527 -0.34767619
-0.83881253 1.454736 0.37929514
-0.83424181 1.4462355 0.25859112
-0.84495509 1.4648802 0.1448735
-0.8424831 1.461773 0.028817233
-0.67204762 1.1680586 -0.16096137
-0.65797997 1.1453516 -0.24975325
-0.66479993 1.159573 -0.34832245
-0.84097105 1.4703511 0.38266662
-0.83653116 1.462007 0.2609348
-0.83834642 1.4658041 0.1446556
-0.83711976 1.4648511 0.028817181
-0.66653544 1.1683568 -0.16065714
-0.66124892 1.1604459 -0.25261304
-0.66193891 1.1639875 -0.34896871
-0.83677554 1.4755439 0.38322848
-0.83846259 1.4779582 0.26327848
-0.84303576 1.4860624 0.1463984
-0.83446163 1.4721161 0.02890433
-0.83147633 1.4686152 -0.08663898
-0.6612342 1.168515 -0.1603529
-0.65578723 1.1607232 -0.25213647
-0.65787178 1.1662912 -0.34896877
-0.83877051 1.4912032 0.38659996
-0.83329844 1.480876 0.26327842
-0.84149969 1.4955118 0.14705193
-0.83787543 1.4902819 0.029209461
-0.82268518 1.4649738 -0.086246409
-0.66078532 1.1773129 -0.16126575
-0.65412456 1.1672906 -0.25308976
-0.65379661 1.1685805 -0.3489688
-0.83974451 1.5046194 0.3894093
-0.83679211 1.498733 0.26601252
-0.84017044 1.5048219 0.14770524
-0.83171362 1.490868 0.029165629
-0.82873648 1.4873345 -0.087424509
-0.65446919 1.1751583 -0.16065739
-0.65381837 1.1758933 -0.25451982
-0.6532194 1.1771958 -0.35090768
-0.84037375 1.5182048 0.39221886
-0.838718 1.5146142 0.26835623
-0.84307468 1.5231533 0.14923017
-0.83227998 1.50485 0.029383559
-0.82568884 1.4947354 -0.087686308
-0.65494239 1.1862454 -0.16187453
-0.65325552 1.1846209 -0.25594974
-0.65258998 1.1858214 -0.35284644
-0.84415942 1.5383705 0.39671415
-0.84264743 1.5350055 0.27148113
-0.84134072 1.5326407 0.14988369
-0.84021777 1.5318686 0.029863074
-0.82405722 1.5041813 -0.088078983
-0.65198624 1.1907027 -0.16217884
-0.65381402 1.1955134 -0.25785631
-0.64729285 1.1859705 -0.35220024
-0.84137803 1.5454429 0.39783794
-0.83990979 1.5421311 0.27226233
-0.84430414 1.5508889 0.15140863
-0.83751792 1.5390403 0.029950226
-0.83929008 1.5442182 -0.090303883
-0.64921546 1.1950402 -0.16248314
-0.6508038 1.1999475 -0.25833297
-0.65117407 1.2031019 -0.35672396
-0.84868211 1.5719641 0.404019
-0.84506106 1.5646193 0.27577788
-0.84388095 1.5624505 0.15228002
-0.84161788 1.5595628 0.030298948
-0.83862287 1.5559347 -0.090827435
-0.65090877 1.2082305 -0.16400456
-0.6500892 1.208701 -0.25976288
-0.65059888 1.2116426 -0.35866269
-0.85007417 1.5878105 0.40739048
-0.84657502 1.5806277 0.27812156
-0.84194225 1.571977 0.15293354
-0.83969975 1.5691068 0.030429691
-0.84258157 1.5764772 -0.09187448
-0.65135169 1.2192566 -0.16522169
-0.64471436 1.2087959 -0.25928628
-0.64862937 1.2181729 -0.35995519
-0.85250568 1.6058382 0.41132385
-0.84683168 1.5944835 0.28007463
-0.85277045 1.6057177 0.15598345
-0.84474075 1.5919118 0.030822011
-0.84174025 1.5882376 -0.092398018
-0.64593327 1.2193285 -0.16491747
-0.64277929 1.2153811 -0.2602396
-0.64865655 1.229092 -0.36254019
-0.85142452 1.6174314 0.41357148
-0.84700173 1.6083604 0.28202766
-0.85266793 1.6198577 0.15707268
-0.84702855 1.6104921 0.031127134
-0.83359617 1.5868891 -0.092136323
-0.65181345 1.2414755 -0.16765597
-0.64307946 1.2263176 -0.26214612
-4.0063195 7.6950722 1.9931238
-0.846802 1.6224053 0.28398073
-0.85275823 1.6338695 0.15816189
-0.84947568 1.6289622 0.03143226
-0.65090406 1.250351 -0.16856883
-0.65551001 1.2613548 -0.2692956
-0.68553567 1.3215462 -0.38903606
-3.9783175 7.7068448 1.9925617
-3.9699867 7.6874337 0.75377578
-0.65788579 1.2746817 -0.17161162
-0.66567641 1.2920161 -0.2754918
-0.67981672 1.321782 -0.38838983
-3.9480636 7.714179 1.9908758
-3.8028615 7.4271293 1.3144374
-3.9488015 7.7123308 0.75486487
-0.659069 1.2880231 -0.17313305
-0.67029846 1.3117111 -0.27930483
-0.68176359 1.3370646 -0.39226732
-3.9158478 7.7141943 1.987504
-3.7558601 7.3956614 1.306625
-3.9173491 7.7171836 0.75399333
-3.3288562 6.5600328 0.12769173
-0.67047369 1.3212014 -0.17739291
-0.67014027 1.322806 -0.28121141
-0.67383236 1.3329661 -0.39032865
-3.8867073 7.7234631 1.98638
-3.7289114 7.4065204 1.306234
-3.8839006 7.7145581 0.75246817
-3.3665652 6.6922107 0.13004573
-0.66696995 1.3257519 -0.17769721
-0.66442019 1.3229425 -0.28073481
-0.67048776 1.3373536 -0.39097491
-3.8532026 7.7239037 1.9830084
-3.6942179 7.4018135 1.3031089
-3.8525016 7.7191534 0.75159651
-3.3532188 6.7240558 0.13043791
-0.66786057 1.3391825 -0.17921863
-0.66088903 1.3274521 -0.2812115
-0.66795921 1.3440142 -0.39226741
-3.8208206 7.7263856 1.9801985
-3.6716418 7.4213047 1.3042806
-3.8178065 7.7169275 0.75007135
-3.3241913 6.7245145 0.13021977
-0.9793244 1.9805418 -0.11399277
-0.65879506 1.332602 -0.17800157
-0.66058385 1.3385596 -0.28311804
-0.66409266 1.3486212 -0.3929137
-3.785254 7.7221756 1.9757031
-3.6305006 7.4030342 1.2988118
-3.7851143 7.7219224 0.74919969
-3.2929294 6.7231827 0.129958
-0.96986604 1.979632 -0.11373108
-0.65608346 1.3394675 -0.17861015
-0.66773731 1.3651228 -0.28836098
-0.66466308 1.3617897 -0.39614493
-3.752671 7.727231 1.9734551
-3.6044207 7.4185109 1.2992021
-3.7537854 7.7261262 0.74832809
-3.2519844 6.6986532 0.1292603
-0.96186125 1.9807587 -0.11360025
-0.65032303 1.3395158 -0.17830589
-0.67364544 1.3895423 -0.29312733
-0.6682961 1.3815048 -0.40131488
-3.7196314 7.724268 1.9695215
-3.566946 7.4037251 1.2945145
-3.7235532 7.7324505 0.74767435
-3.1560686 6.5562272 0.12629567
-0.95636868 1.9861877 -0.11373117
-0.65446436 1.3595631 -0.18074015
-0.66659337 1.3903662 -0.40325361
-3.6863532 7.7240114 1.9661498
-3.5421441 7.4183593 1.2949049
-3.6925285 7.7335167 0.74658489
-3.1568294 6.6168427 0.12725462
-0.94835639 1.9872599 -0.11360034
-0.6539768 1.3708032 -0.18195729
-0.92699999 1.9484854 -0.41228464
-0.67103845 1.4123286 -0.40906981
-3.6572869 7.7324271 1.9650257
-3.5025041 7.4016595 1.2898269
-3.6599016 7.7379923 0.74571323
-3.3076169 6.9990478 0.13440409
-0.94000161 1.9884645 -0.11346952
-0.65634936 1.388905 -0.18408725
-0.93063837 1.9739168 -0.41705099
-0.66815639 1.4190348 -0.41036233
-3.625823 7.7391624 1.9633398
-3.4774473 7.4189196 1.2906079
-3.6275861 7.7394433 0.74462384
-3.2672725 6.9765911 0.13374999
-0.93094057 1.98721 -0.11320781
-0.66094249 1.4114248 -0.18682575
-0.92166883 1.9727048 -0.41609776
-0.66218054 1.4191686 -0.4097161
-3.5950112 7.7400951 1.96053
-3.4476256 7.4192119 1.2886546
-3.5953057 7.7407641 0.74353439
-3.2430673 6.9851203 0.13370626
-0.92224652 1.9857559 -0.11294611
-0.91374815 1.973682 -0.41562119
-0.65115851 1.4083111 -0.4058387
-3.5638993 7.7437439 1.9582822
-3.4206748 7.4289584 1.2882638
-3.5675344 7.7481198 0.74309856
-0.9121843 1.9821563 -0.11255351
-0.90276808 1.9679329 -0.41371471
-0.64949501 1.417053 -0.40777746
-3.5338171 7.7494874 1.9565965
-3.3916492 7.434113 1.2870917
-1.3539714 2.9676554 0.056280904
-0.90215862 1.9785107 -0.11216094
-0.88138926 1.9355228 -0.25650501
-0.89792013 1.9755428 -0.41466802
-0.65350628 1.4391133 -0.41359362
-3.4993773 7.7490649 1.9532235
-3.3592982 7.4352417 1.2851373
-1.3400018 2.9657624 0.056149613
-0.89182472 1.9749753 -0.11176865
-0.87734342 1.9455293 -0.25741819
-0.89001316 1.9764262 -0.41419172
-0.65514106 1.4569255 -0.41811755
-3.4706774 7.7539554 1.9515377
-3.3285716 7.4328175 1.2827936
-3.291625 7.3537145 0.70170474
-1.3301595 2.9701898 0.056149554
-0.88628846 1.9802017 -0.11189956
-0.8718974 1.9506943 -0.2577225
-0.89009333 1.995216 -0.41752821
-0.65887117 1.4790689 -0.42393377
-3.4337208 7.7437525 1.9459183
-3.2986028 7.4353619 1.2812309
-1.3207958 2.9771001 0.056193087
-0.87432152 1.9718673 -0.11124523
-0.86508292 1.9537259 -0.25772253
-0.889063 2.0117846 -0.42038798
-3.346941 7.6196251 1.9116412
-3.26965 7.4400473 1.2800589
-3.3993721 7.7391052 0.73634309
-1.3088714 2.9796321 0.056149423
-0.86408389 1.9681979 -0.11085264
-0.85692209 1.95461 -0.25741833
-3.2927756 7.5715189 1.8964694
-3.2364514 7.4383945 1.277715
-3.3743236 7.7554927 0.73677868
-1.2954746 2.9773047 0.056018576
-0.85919523 1.9757826 -0.11111443
-0.84516245 1.9462044 -0.25589696
-3.2657223 7.5779219 1.8953453
-3.2127435 7.4513531 1.2781054
-3.344276 7.7603621 0.73612499
-1.2816412 2.9724002 0.055844147
-0.84770894 1.9671527 -0.11046008
-0.83870405 1.9489963 -0.25589699
-3.244029 7.6004782 1.8981547
-3.1847763 7.4579816 1.2773242
-1.2722383 2.9791558 0.055887684
-0.84279299 1.9746941 -0.11072188
-0.83189559 1.951912 -0.25589702
-3.2231665 7.6252208 1.9015261
-3.1519947 7.4531312 1.2745898
-1.2579422 2.9743671 0.055713248
-0.83492506 1.9753234 -0.11059104
-0.83855623 1.9868224 -0.26015696
-0.80153233 1.9025543 -0.39417353
-3.2510538 7.7667699 1.9341171
-3.1230993 7.4572549 1.2734176
-1.2652432 3.0180826 0.28320831
-1.2465879 2.976434 0.055669595
-0.82706285 1.9759219 -0.1104602
-0.84020877 2.0103505 -0.26289546
-0.79394358 1.9030747 -0.39369696
-3.2220588 7.7735691 1.9329931
-3.0998859 7.4749541 1.2745894
-1.2751402 3.0733197 0.288001
-1.236626 2.9832926 0.055713132
-0.81886184 1.9766327 -0.11032935
-0.79290456 1.9194492 -0.39655676
-3.1935458 7.785327 1.9329929
-3.0687201 7.4771266 1.2730267
-1.2577894 3.0616224 0.28647596
-1.2243093 2.982965 0.055625886
-0.81290239 1.9817896 -0.11046027
-0.78156519 1.9108434 -0.39417362
-3.1622126 7.7823324 1.9296215
-3.0383313 7.4735351 1.2706828
-1.2489686 3.0706093 0.28691164
-1.2106508 2.9777441 0.055451464
-0.80257553 1.9752192 -0.1099368
-0.77397138 1.9112843 -0.39369705
-3.1332109 7.7888026 1.9284974
-3.0085399 7.4749317 1.2691202
-1.2387794 3.0747344 0.28691161
-1.1946577 2.9680355 0.055189848
-0.79567581 1.9780087 -0.10993683
-0.76365101 1.9048593 -0.3917906
-3.1024008 7.790638 1.9262495
-2.9842563 7.4899769 1.2699014
-1.2293432 3.0838819 0.2873472
-1.176384 2.9538119 0.054841038
-0.78657854 1.9762707 -0.10967512
-0.76167083 1.916427 -0.24859466
-3.0666869 7.7838235 1.9217542
-2.9703591 7.535327 1.2757605
-1.2158327 3.0812027 0.2866936
-1.1642354 2.953248 0.054753795
-0.7824142 1.9859754 -0.11006778
-0.7540704 1.916764 -0.24829039
-0.68678421 1.747902 -0.35794985
-3.0390885 7.7894111 1.9206302
-3.0288105 7.7590785 1.3120881
-1.2086886 3.0947094 0.28756496
-1.1508054 2.9477766 0.054579381
-0.77220315 1.9792525 -0.1095443
-0.73872435 1.8961239 -0.24524765
-3.0083718 7.7908802 1.9183824
-2.9954827 7.7534781 1.3093536
-1.1993165 3.1010239 0.28778279
-1.1441066 2.9611044 0.05475371
-0.76618665 1.9842656 -0.10967521
-2.9794207 7.796783 1.9172584
-2.9666374 7.7592745 1.3085722
-2.9763925 7.7888999 0.72631991
-1.1305732 2.9582715 0.054622874
-0.75446588 1.9753952 -0.10902087
-0.57697868 1.5140917 -0.30790377
-0.57784528 1.5203176 -0.42587289
-2.9491029 7.803093 1.9161344
-2.9469068 7.7931943 1.3124782
-2.9474254 7.7945833 0.72588408
-1.1175919 2.9551842 0.054492049
-0.74756587 1.9780167 -0.1090209
-0.61537814 1.6298329 -0.20934306
-0.57082683 1.513799 -0.30742717
-0.56490868 1.501972 -0.42005679
-2.9189451 7.8014207 1.9133247
-2.9193168 7.7982979 1.3116969
-2.9167106 7.7954926 0.72501254
-0.7436204 1.9875021 -0.10941355
-0.60650527 1.6225631 -0.20812596
-0.56724936 1.5203831 -0.30838042
-0.56385952 1.5152569 -0.42328799
-2.888315 7.8024235 1.9110769
-2.8903635 7.8038082 1.3109155
-2.8882506 7.7981153 0.72435892
-2.8813202 7.7877388 0.14420836
-0.73408467 1.9830594 -0.10902095
-0.59225732 1.6013869 -0.20508322
-0.56447977 1.529264 -0.30981034
-0.56631911 1.5375234 -0.42910418
-2.8552015 7.7964435 1.9071435
-2.8571627 7.7976193 1.308181
-2.8567309 7.7964568 0.72326958
-2.8549774 7.8000975 0.14425185
-0.72887069 1.9902999 -0.10928272
-0.59601289 1.629089 -0.20843031
-0.56165504 1.5381439 -0.31124026
-0.56259668 1.544031 -0.43039668
-2.8254821 7.7994909 1.9054577
-2.829927 7.8075452 1.3081809
-2.828651 7.8040385 0.72305155
-2.8268819 7.8076644 0.14420813
-0.71852618 1.9834397 -0.10875924
-0.56506938 1.5611315 -0.199302
-0.54880428 1.5193124 -0.30695063
-0.55883574 1.5505314 -0.43168917
-2.7957766 7.8024273 1.9037719
-2.7984924 7.8057532 1.3062277
-2.8005526 7.8115211 0.72283363
-2.803822 7.8292527 0.14442602
-0.71327823 1.9906378 -0.10902103
-0.56878644 1.5888035 -0.20264907
-0.54267466 1.5189065 -0.306474
-0.53644878 1.5046808 -0.41811815
-2.7663476 7.8103247 1.9032086
-2.7673914 7.8089743 1.3050547
-2.7685781 7.8123426 0.72196102
-2.7726068 7.832407 0.14429398
-0.70182079 1.9814682 -0.10836695
-0.55388379 1.565135 -0.19930227
-0.53655457 1.5184767 -0.30599761
-0.5245319 1.4884068 -0.41294846
-2.7372117 7.8102579 1.9009608
-2.7382145 7.8087869 1.3034921
-2.7396445 7.8172579 0.72152513
-0.69771665 1.9908552 -0.1087596
-0.54950786 1.569306 -0.19960657
-0.52802408 1.5110692 -0.3040911
-0.51933318 1.4902287 -0.41294849
-2.707541 7.81286 1.8992749
-2.7077067 7.8089652 1.3019295
-2.7112608 7.8192406 0.72087157
-0.83834666 1.4642984 0.20260254
-2.7323093 7.8888917 0.14499129
-0.84958452 1.486756 0.087902598
-0.68587136 1.9791204 -0.10797437
-0.8311581 1.4564574 -0.028686937
-0.54483569 1.5735604 -0.19991086
-0.69049096 1.2115549 -0.11874802
-0.52274615 1.5129031 -0.3040911
-0.51883131 1.5057381 -0.41682592
-0.66125214 1.157504 -0.29953763
-2.6810417 7.8245673 1.8998368
-0.84969604 1.4847701 0.44844428
-2.6804316 7.8183689 1.3019294
-0.84330642 1.4801165 0.32406232
-2.6793568 7.8197002 0.71999997
-0.84184945 1.4822965 0.20473197
-2.6710231 7.8042483 0.14324746
-0.83794683 1.4790158 0.087248519
-0.67941964 1.9839838 -0.10810528
-0.82730645 1.4615219 -0.028730642
-0.53746367 1.5708493 -0.19930233
-0.515881 1.5100721 -0.30313787
-0.50814086 1.4915309 -0.41230226
-0.65962446 1.1640353 -0.30066162
-2.6500034 7.8274188 1.8981509
-0.84784126 1.4941657 0.45038274
-2.6477995 7.8164454 1.2999762
-0.84757948 1.5002651 0.32787478
-2.6520445 7.8290052 0.71999991
-0.84034145 1.4917018 0.20564453
-2.6437652 7.8135242 0.14324737
-0.83892393 1.4927973 0.087902509
-0.67009491 1.9792465 -0.10771266
-0.83572674 1.4883388 -0.029210975
-0.53673083 1.5868249 -0.20112802
-0.75920719 1.3529475 -0.13244973
-0.51217145 1.5165157 -0.30409113
-0.6596927 1.1759315 -0.20784581
-0.50523502 1.5001646 -0.41424102
-0.65555722 1.1663307 -0.30066168
-2.6217141 7.8292341 1.8964652
-0.85240722 1.5137782 0.4555521
-2.6179454 7.8134751 1.2980231
-0.84742337 1.5116175 0.32978103
-2.620749 7.8264055 0.71891057
-0.84850812 1.5184183 0.2089908
-2.6146693 7.8127666 0.1430729
-0.8461867 1.5173429 0.089210555
-0.66194677 1.9767218 -0.10745094
-0.83419281 1.4977885 -0.029342005
-0.53774178 1.6074293 -0.20356226
-0.75958872 1.3641469 -0.13331971
-0.50455201 1.5113078 -0.30266127
-0.65920806 1.1846879 -0.2090179
-0.50455481 1.5156733 -0.41811848
-0.65287995 1.1706216 -0.30122367
-2.5905445 7.8267732 1.8936555
-0.85421813 1.5293759 0.45942912
-2.5898795 7.8202214 1.2976323
-0.84933203 1.5274163 0.33264035
-2.5939987 7.8326883 0.7186926
-0.85045487 1.5343735 0.21081601
-2.5873816 7.8218451 0.14307281
-0.8481701 1.533376 0.089995362
-0.6573894 1.9861329 -0.10784359
-0.84231907 1.5247234 -0.029822338
-0.74369299 1.347331 -0.13136238
-0.50003952 1.5153913 -0.30313793
-0.6550687 1.1869817 -0.20901793
-0.50302058 1.5289004 -0.4213497
-0.65451598 1.1836451 -0.30403364
-2.5624514 7.8334522 1.8930935
-0.85240245 1.5386766 0.46136758
-2.5602636 7.8221736 1.2964604
-0.84994972 1.5411009 0.33502308
-2.5637257 7.8374085 0.71825677
-0.84509373 1.5373329 0.21081597
-2.554817 7.8193951 0.14285475
-0.84736907 1.545218 0.090518557
-0.64778477 1.981408 -0.10745098
-0.84423292 1.5407882 -0.030084357
-0.73177052 1.3368329 -0.1300575
-0.49702072 1.5241301 -0.30456784
-0.6497283 1.1870991 -0.20862727
-0.50065619 1.5398372 -0.4239347
-0.64920151 1.1837908 -0.30347168
-2.5322266 7.8381553 1.8919694
-0.85843968 1.5629272 0.46782926
-2.532336 7.8338556 1.296851
-0.85375994 1.5614071 0.33883557
-2.5340559 7.8392005 0.71760321
-0.84927052 1.5576777 0.21324959
-2.5190647 7.8020973 0.14237514
-0.84916133 1.561307 0.091303356
-0.63933378 1.978904 -0.10718925
-0.84844321 1.561271 -0.030433703
-0.71634585 1.3197123 -0.12810014
-0.49019778 1.5211822 -0.30361459
-0.65032238 1.1980245 -0.21019006
-0.49674979 1.5461761 -0.4252272
-0.64857936 1.1924574 -0.30515766
-2.503999 7.8395476 1.8902838
-0.85789704 1.5742354 0.47041392
-2.5040905 7.8351521 1.2956791
-0.85092932 1.5685378 0.33978865
-2.5051622 7.8432527 0.71716738
-0.84619993 1.5649922 0.21385796
-2.0252943 6.3434505 0.11552162
-0.85112667 1.5772785 0.09208817
-0.63428289 1.9857713 -0.10745102
-0.85252064 1.5818014 -0.030783048
-0.50547594 1.5840375 -0.19960672
-0.70959032 1.3177023 -0.12766521
-0.48710981 1.5299021 -0.3050445
-0.65791517 1.2219896 -0.21409696
-0.49280521 1.552506 -0.42651969
-0.6504426 1.2053008 -0.3079676
-2.472223 7.8343 1.8869121
-0.85816592 1.5878285 0.47364476
-2.4744966 7.8367815 1.2945071
-0.85129094 1.5822896 0.34217143
-2.4768913 7.8443928 0.71651375
-0.84662348 1.5788554 0.21537898
-2.0151591 6.3886266 0.11621906
-0.85390097 1.5956271 0.09300378
-0.62510014 1.9808284 -0.10705839
-0.84845483 1.5868212 -0.030826749
-0.49474049 1.5692198 -0.19747679
-0.71442604 1.3377173 -0.12940514
-0.48396692 1.5386192 -0.30647442
-0.65481585 1.2264531 -0.21448767
-0.49053487 1.5633522 -0.42910466
-0.6531719 1.2204268 -0.31133956
-2.4463103 7.8475337 1.8880359
-0.85720396 1.5993167 0.47622943
-2.4427178 7.8312259 1.2921633
-0.85388845 1.6003873 0.34550735
-2.4487536 7.8506131 0.7162959
-0.85515535 1.6080559 0.21902943
-1.9928465 6.3956218 0.116219
-0.85067773 1.6030025 0.093265355
-0.61818188 1.9829984 -0.10705841
-0.84644032 1.5963893 -0.030957777
-0.49661005 1.5946379 -0.20051956
-0.7085799 1.3380057 -0.12918769
-0.48149443 1.5496773 -0.30838093
-0.6516934 1.2309098 -0.2148784
-0.48222622 1.5558244 -0.42651972
-0.6638484 1.2506218 -0.31864536
-2.4160371 7.8467112 1.8857881
-0.85845006 1.6150768 0.48010641
-2.4146404 7.8373446 1.2917727
-0.85636973 1.618522 0.34884322
-2.4169385 7.8448315 0.71498865
-1.9675713 6.3929825 0.11604456
-0.85909575 1.632439 0.094835013
-0.61125618 1.9851441 -0.10705843
-0.85372043 1.6236386 -0.031438112
-0.48522678 1.5773807 -0.19808537
-0.71089286 1.3536795 -0.13049264
-0.47608206 1.5513484 -0.30838096
-0.65663344 1.2506371 -0.21800391
-0.48312908 1.5782894 -0.43233588
-0.66747117 1.2679944 -0.32257926
-2.3858001 7.8457747 1.8835405
-4.0664248 7.6773496 2.315239
-2.3858321 7.841001 1.2909913
-4.0529947 7.6875019 1.6808352
-2.3873672 7.8460722 0.71433508
-4.0327644 7.6750298 1.0586438
-1.9474221 6.4069867 0.11617529
-4.0320339 7.689858 0.45311686
-0.60359889 1.9848765 -0.10692759
-0.7050063 1.3539472 -0.13027517
-0.47633526 1.571797 -0.31219402
-0.68095005 1.3075836 -0.22777113
-0.68345755 1.3091218 -0.33269504
-2.3541987 7.840055 1.8801688
-4.0384774 7.6893592 2.3145928
-2.3577375 7.8469167 1.2906008
-4.0181689 7.6863828 1.6774991
-2.3578165 7.8472013 0.7136814
-4.008245 7.6934595 1.059252
-1.9264818 6.4185348 0.11626242
-4.000555 7.6950269 0.45259342
-0.59666669 1.9869714 -0.1069276
-0.70142508 1.3586096 -0.1304927
-0.47505003 1.587562 -0.31505382
-0.68436033 1.3252859 -0.23050597
-0.67888367 1.3114996 -0.33269507
-2.3275094 7.8505602 1.8807307
-4.0049124 7.6905603 2.3107154
-2.3310342 7.8574662 1.2909912
-3.9890528 7.6960053 1.6765457
-2.3289948 7.8506079 0.71324563
-3.969965 7.6853638 1.0562097
-1.9210932 6.4827428 0.11730861
-3.9690902 7.7000709 0.45207
-0.58901995 1.9866478 -0.10679673
-1.2410941 2.4167159 -0.046851445
-0.6966784 1.3610497 -0.13049273
-0.46812055 1.5845017 -0.31410056
-0.67633349 1.3210834 -0.22933395
-0.67989737 1.3246799 -0.33550498
-2.295306 7.8422699 1.8767972
-3.9747155 7.6980586 2.3087766
-2.3001251 7.8537059 1.2890381
-3.9554267 7.6967888 1.6736861
-2.2987795 7.8491302 0.71237427
-3.9159384 7.6461825 1.0489086
-2.2826779 7.8042097 0.14119758
-3.9353642 7.7005439 0.45128503
-0.58068347 1.9838982 -0.10653499
-1.2504284 2.456861 -0.047550119
-0.56510657 1.9342328 -0.24281429
-0.69961882 1.3791177 -0.13201517
-0.46327099 1.588483 -0.31457722
-0.67284238 1.3256345 -0.22972465
-0.67503756 1.3271627 -0.33550501
-2.2685931 7.8525753 1.8773592
-3.9401085 7.6968422 2.3042536
-2.2713261 7.8569417 1.2882568
-3.9263053 7.7061772 1.6727327
-2.2693048 7.8551087 0.71215624
-3.85886 7.6000829 1.0406948
-2.2616746 7.8389444 0.14167702
-3.8992097 7.6993289 0.45036918
-0.57547903 1.9932112 -0.10692766
-1.2474935 2.4723597 -0.047768496
-0.55938298 1.941061 -0.24342285
-0.69930309 1.3904378 -0.13288516
-0.44961071 1.5617801 -0.30885765
-0.65815967 1.3081545 -0.22620851
-0.67150444 1.3316828 -0.33606705
-2.2377963 7.8538094 1.8756734
-3.9096847 7.7069249 2.3029609
-2.241837 7.8628383 1.287866
-3.8924985 7.7095661 1.6703498
-2.2405069 7.858192 0.71172047
-3.7898657 7.5293036 1.0291348
-2.2322457 7.8395782 0.14154619
-3.8700678 7.7084327 0.45010737
-0.56579047 1.9856014 -0.10640416
-1.2433436 2.4856341 -0.047943208
-0.55125111 1.9382271 -0.24281432
-0.69668102 1.3973216 -0.13332015
-0.66246235 1.3280934 -0.22933404
-0.66137153 1.3231411 -0.33325714
-2.2104213 7.8564959 1.8745495
-3.8765001 7.7047501 2.2984374
-2.2144139 7.8654766 1.2870848
-3.8614111 7.7114615 1.6679668
-2.2117152 7.8611698 0.71128476
-3.7602336 7.5358281 1.028222
-2.2048845 7.8421254 0.14145897
-3.8400283 7.712286 0.44958398
-0.55920291 1.9874667 -0.10640417
-1.2335453 2.4877212 -0.047899596
-0.54281497 1.9328753 -0.24190149
-0.69204348 1.3996241 -0.13332018
-0.65892369 1.3326077 -0.22972474
-0.6624245 1.3362228 -0.33606711
-2.1829836 7.8641639 1.8745495
-3.8441865 7.7074318 2.2952063
-2.1849637 7.8660188 1.2859129
-3.8301008 7.7161036 1.6660604
-2.1836367 7.8612618 0.71063113
-3.7339056 7.5489078 1.0282218
-2.1768293 7.8473649 0.14141533
-3.7887483 7.676404 0.44670603
-0.5535928 1.9942188 -0.10666592
-1.2248541 2.4920118 -0.047899649
-0.53342378 1.9251903 -0.24068439
-0.69572753 1.4200177 -0.13506013
-0.65864277 1.3437552 -0.23128752
-0.65860331 1.3408246 -0.33662909
-2.1535907 7.864686 1.8728635
-3.8119009 7.709981 2.2919753
-2.154233 7.8616896 1.2839597
-3.7977197 7.7184186 1.6636776
-2.1521802 7.8596025 0.70975971
-3.6987832 7.5440755 1.0257879
-2.1460764 7.8480568 0.14128448
-3.4696317 7.0960608 0.41204199
-0.54365313 1.9865997 -0.10614243
-1.2106553 2.4850457 -0.047681388
-0.52701539 1.9295269 -0.24098866
-0.65612012 1.3504815 -0.23206894
-0.65391892 1.3431154 -0.33662912
-2.1228487 7.8654709 1.8711779
-3.7782991 7.7130599 2.2887442
-2.1247609 7.8671494 1.2835692
-3.7640216 7.7212591 1.6612946
-2.124732 7.8670673 0.70975965
-3.6700225 7.5553498 1.0254836
-2.0978584 7.7782664 0.13988946
-3.43612 7.0901604 0.41099539
-0.53866005 1.9957181 -0.10653507
-1.2019737 2.4892566 -0.04768144
-0.5202769 1.9313549 -0.24098867
-0.65547717 1.3617637 -0.23363172
-0.65562016 1.3585335 -0.34000108
-2.0941281 7.8681245 1.8700539
-3.7471287 7.717514 2.2861595
-2.0934772 7.8601999 1.2812253
-3.7295649 7.7188873 1.6579585
-2.0959771 7.8696222 0.70932382
-3.6414719 7.5636444 1.024875
-2.0559306 7.7299786 0.13888678
-3.4037733 7.0863624 0.4100796
-0.53105062 1.9951735 -0.10640422
-1.188946 2.4844255 -0.047506832
-0.51607084 1.9427546 -0.24220581
-0.65178972 1.3662688 -0.23402241
-2.0674074 7.8726687 1.8694954
-3.7131259 7.7124939 2.280993
-2.0661464 7.8623219 1.2804474
-3.696516 7.7157216 1.6546253
-2.0679722 7.8693037 0.7086736
-3.6120892 7.5667229 1.023661
-2.0296524 7.7343359 0.13884641
-0.52379966 1.9945079 -0.1062725
-1.1802664 2.4885609 -0.047505908
-0.51213264 1.9540592 -0.24342211
-0.91145808 1.9242562 -0.18290672
-0.50652212 1.9380498 -0.38225815
-0.64406741 1.3617361 -0.23284987
-2.0380843 7.8727612 1.8678094
-3.6820166 7.7166905 2.2784081
-2.037452 7.8647056 1.2796662
-3.6653464 7.7197137 1.652719
-2.0397396 7.8792415 0.70889145
-3.5803428 7.5680737 1.0221398
-1.9981658 7.7296219 0.13862841
-1.397126 2.9678121 0.1700497
-0.51523989 1.9915792 -0.10601075
-1.1683713 2.4858837 -0.04737496
-0.50434923 1.9535199 -0.24311782
-0.91430408 1.9476957 -0.18486415
-0.50158364 1.9469378 -0.38368809
-0.64458448 1.375139 -0.2348033
-2.0092154 7.8801785 1.8678094
-3.6516423 7.7257681 2.2771156
-2.0073929 7.8673339 1.2788848
-2.0085325 7.8718333 0.70758432
-3.5496845 7.5715394 1.0209229
-1.9693226 7.7292824 0.13849759
-1.385699 2.9704101 0.16991884
-0.50951391 1.9982051 -0.10627252
-1.1575686 2.4854193 -0.04728768
-0.50057489 1.9672955 -0.24463923
-0.90855515 1.9531316 -0.18508166
-0.49237809 1.9391595 -0.38178155
-0.64292163 1.3840896 -0.2359754
-1.9824797 7.8844357 1.8672476
-3.6229255 7.731277 2.2751768
-1.9812928 7.8739476 1.2788848
-3.4826105 7.469377 1.5936249
-1.9828625 7.8860421 0.70823783
-3.5232334 7.5838833 1.0209228
-1.9424636 7.7309222 0.1384104
-1.3726879 2.9681952 0.16952637
-0.50106531 1.9926184 -0.1058799
-1.1636031 2.521194 -0.047899008
-0.49224359 1.9617225 -0.24372642
-0.89997756 1.9516146 -0.18464671
-0.48323292 1.9313411 -0.37987503
-0.63392925 1.3773656 -0.23441267
-1.9531902 7.8842134 1.8655618
-3.5918427 7.7351165 2.2725921
-1.952015 7.8736253 1.2777129
-3.4544551 7.4770331 1.5926716
-1.9525098 7.8756518 0.70671284
-3.48739 7.5758548 1.0181847
-1.9148656 7.735229 0.13836677
-1.3633616 2.9752369 0.16965713
-0.49410671 1.9943554 -0.1058799
-1.1395804 2.4909692 -0.047244098
-0.48657918 1.9682477 -0.24433495
-0.88796008 1.9434294 -0.1835593
-0.47999817 1.9473165 -0.38273481
-1.9250803 7.8886161 1.8649998
-3.5587566 7.734448 2.2687151
-1.9233484 7.8755932 1.2769316
-3.4303801 7.4935083 1.5936246
-1.9250067 7.8824196 0.70671284
-3.4568002 7.5789547 1.0169678
-1.887853 7.7418666 0.13836676
-1.3477914 2.9686191 0.16900304
-0.48773167 1.9984938 -0.10601077
-1.1868106 2.6177776 -0.049601957
-0.48321426 1.9844036 -0.24616064
-0.89149094 1.9691832 -0.18573421
-0.46743125 1.9251258 -0.37796852
-1.8946892 7.8834448 1.8621902
-3.5267212 7.735837 2.2654839
-1.8952692 7.8798575 1.2765411
-3.4072468 7.5121393 1.5950541
-1.8980621 7.8915133 0.7069307
-3.4252083 7.5796714 1.0154467
-1.8625666 7.7557006 0.13849752
-1.3343385 2.9664793 0.16861056
-0.47959048 1.9953283 -0.10574903
-1.1617965 2.5879295 -0.048947059
-0.47628444 1.9860781 -0.24616064
-0.87914908 1.9610856 -0.18464682
-0.46014008 1.9243582 -0.37749189
-0.86020547 1.9173417 -0.32700559
-1.8677198 7.8923807 1.8627521
-3.4937248 7.7348986 2.2616069
-1.8666151 7.8816199 1.2757598
-3.3930907 7.5508432 1.6007729
-1.8668339 7.8887224 0.70605928
-3.396699 7.5870523 1.0148381
-1.8519278 7.8378901 0.1398489
-1.323457 2.97135 0.16861051
-0.47341838 2.0019329 -0.10601078
-1.1670284 2.6239209 -0.049558382
-0.8814401 1.9846081 -0.18660423
-0.45789996 1.9450679 -0.38130495
-0.85955471 1.933858 -0.3293497
-1.837677 7.8944292 1.8616283
-3.4189494 7.644063 2.2312365
-1.837715 7.8884087 1.2757597
-3.4353209 7.7201443 1.6341323
-3.3671727 7.5920601 1.0139253
-1.8245572 7.8443074 0.13984889
-1.314088 2.9782343 0.16874127
-0.46530002 1.9987091 -0.10574904
-1.1548276 2.6211212 -0.049427435
-0.50678366 2.1828449 -0.27050281
-0.87853855 1.9967829 -0.18747421
-0.45883065 1.9801332 -0.38797775
-0.85779911 1.9481351 -0.33130321
-1.8109442 7.8981042 1.8610663
-3.3485034 7.5538235 2.2015123
-1.8115461 7.8944592 1.2757597
-3.4156499 7.7449617 1.6369913
-1.7305391 7.5471282 0.67425275
-3.3376527 7.5969529 1.0130125
-1.7901703 7.813766 0.13919498
-1.2991871 2.9711454 0.16808718
-0.45978078 2.0051091 -0.10601079
-1.1446676 2.6228471 -0.049383808
-0.49513409 2.1651578 -0.26806858
-0.87691349 2.0110893 -0.18856168
-0.44865608 1.9673634 -0.38511801
-1.7817571 7.8972483 1.8593807
-3.3123925 7.5433574 2.1950505
-1.7834347 7.8983254 1.2753692
-3.3876109 7.7545896 1.6365147
-1.7065984 7.5576849 0.67468846
-3.3061571 7.5971837 1.0114915
-1.5004117 6.6543341 0.11835707
-1.2868171 2.9710832 0.16782553
-0.45223168 2.004266 -0.10587993
-1.131523 2.6176553 -0.049209196
-0.49082875 2.1814015 -0.26989424
-0.86656076 2.0074365 -0.18790925
-0.44232091 1.9713126 -0.38559464
-1.752071 7.8939071 1.857133
-3.2879703 7.5593028 2.1963427
-1.7537143 7.8948607 1.2738067
-3.3546669 7.7528567 1.6336552
-1.6761917 7.5517316 0.67359918
-3.2786341 7.6063995 1.0111871
-1.4808738 6.6817541 0.1187494
-1.2690091 2.9597275 0.16690983
-0.44488263 2.0059099 -0.10587993
-1.1213914 2.6192927 -0.049165569
-0.4833639 2.1856091 -0.27019855
-0.8605321 2.0127368 -0.18812676
-0.43912306 1.9896234 -0.38893104
-1.7226082 7.8978949 1.8565711
-3.2621551 7.5757384 2.1976349
-1.7231882 7.8939962 1.2726347
-3.3242936 7.7605896 1.6327019
-1.6492904 7.5551033 0.67338133
-3.2471852 7.6063895 1.0096658
-1.4878448 6.8261008 0.12123425
-1.2586699 2.9641395 0.16690978
-0.43681857 2.0025711 -0.10561817
-1.1083236 2.6139922 -0.048990954
-0.85154939 2.0111461 -0.18769182
-0.44202116 2.0367215 -0.39798701
-0.80727369 1.9054071 -0.32192683
-1.6964085 7.9035645 1.8565711
-3.2854173 7.6997738 2.2305899
-1.6964836 7.897253 1.2722442
-3.2918196 7.7557597 1.6293658
-1.6218641 7.555944 0.67294562
-3.2206142 7.6176782 1.0096658
-1.4751476 6.8774366 0.12206255
-1.2430047 2.9544983 0.1661249
-0.4296537 2.0015669 -0.10548729
-1.1001637 2.6201484 -0.049034651
-0.45864916 2.1427367 -0.26441726
-0.8380971 1.9978966 -0.18616943
-0.80061769 1.9082134 -0.32192686
-1.667805 7.9046702 1.8554473
-3.2811112 7.7645717 2.2460978
-1.6694162 7.9055424 1.2726347
-3.2628229 7.7626801 1.6284126
-1.5957707 7.5564065 0.67250991
-3.1882467 7.6151438 1.0078405
-1.4428917 6.8434081 0.12136505
-1.2278669 2.9473031 0.16547084
-0.42266431 2.0030546 -0.10548729
-1.0881208 2.6170533 -0.0489037
-0.45065808 2.141896 -0.26411298
-0.83364862 2.0078495 -0.18682192
-0.79204679 1.9064401 -0.3211455
-0.79063278 1.8985112 -0.46644735
-1.6406964 7.9128289 1.856009
-3.2493205 7.7648411 2.2428668
-1.6413095 7.9089041 1.2722442
-3.2290957 7.7581649 1.6250765
-1.5655394 7.5500116 0.67142069
-3.1616454 7.6262264 1.0078404
-1.3995824 6.7605276 0.11979566
-1.2151463 2.9471703 0.16520917
-0.41632825 2.0094807 -0.10574905
-1.0837557 2.632385 -0.049122054
-0.44080538 2.1338112 -0.26289588
-0.77877527 1.8932228 -0.31841072
-0.78026575 1.8922598 -0.46419945
-1.6092575 7.9068527 1.8531996
-3.2171373 7.7677751 2.2402821
-1.6103419 7.9051876 1.2706816
-3.1987672 7.7654109 1.6241233
-1.5401685 7.5603104 0.67185634
-3.1302879 7.625741 1.0063192
-1.3963723 6.8658056 0.12158301
-1.2029575 2.946774 0.16494752
-0.40881568 2.0084748 -0.10561817
-1.0783495 2.6454043 -0.049296744
-0.43531957 2.1450658 -0.26411298
-0.77590835 1.9050689 -0.3199735
-0.77458149 1.8972248 -0.46476144
-1.5763459 7.8787026 1.8453327
-3.1895251 7.7739334 2.2389896
-1.5841185 7.9104838 1.2706816
-3.1674283 7.7623467 1.621264
-1.5127926 7.5607567 0.67142069
-3.1064568 7.6435161 1.0072318
-1.3770223 6.8875575 0.12188818
-1.1950575 2.955373 0.1652091
-0.40166557 2.0073707 -0.10548728
-1.0813184 2.6792665 -0.049864404
-0.4286871 2.1489317 -0.26441726
-0.75903893 1.8825973 -0.31567597
-0.77379662 1.9133207 -0.46813339
-1.5432067 7.8554711 1.8385897
-3.1569092 7.7715974 2.2351124
-1.5431737 7.8481216 1.2597444
-3.1412337 7.7756305 1.6217403
-1.4862722 7.5584002 0.67076713
-3.0630612 7.6128855 1.001756
-1.3520103 6.8874159 0.121801
-1.1810093 2.9502611 0.16468585
-0.39465609 2.0087607 -0.10548728
-1.0747528 2.6899838 -0.049995426
-0.42925414 2.1918199 -0.26958999
-0.76313806 1.9071057 -0.46588546
-1.505182 7.8057919 1.8256656
-3.1288595 7.7803292 2.2344661
-1.5054874 7.800117 1.2511508
-3.111335 7.7797136 1.6203107
-1.4595013 7.5686879 0.67120284
-3.0465834 7.6488838 1.0051023
-1.3258141 6.8874164 0.12171382
-1.1729562 2.9615293 0.16507821
-0.38776097 2.0126457 -0.10561816
-1.0736635 2.7146256 -0.050388429
-0.83986408 2.1262455 -0.19660898
-1.4752069 7.8040757 1.82398
-3.0949583 7.7782855 2.2305892
-1.4773471 7.8080096 1.2515416
-3.0791831 7.7819376 1.6184043
-1.4316856 7.5663948 0.67054927
-3.0180423 7.6548562 1.0044936
-1.3017644 6.8920021 0.12171383
-1.1699281 2.9841897 0.16612464
-0.38027167 2.0115333 -0.10548727
-1.066011 2.7230093 -0.050475787
-0.82787907 2.1175756 -0.19552156
-0.59816569 1.5320137 -0.25472876
-1.4484318 7.8041339 1.8228561
-3.0656004 7.7795196 2.2280045
-1.4500953 7.805582 1.2503697
-3.048877 7.780683 1.6160214
-1.4039037 7.5639997 0.66989577
-3.0165985 7.7300553 1.0130113
-1.2807229 6.9061122 0.12188823
-3.0345526 7.7959728 0.43650305
-0.37223935 2.0054181 -0.10509465
-0.81814075 2.1133473 -0.19486912
-0.59729719 1.5455961 -0.25668222
-0.59357828 1.5314289 -0.37091017
-1.4211817 7.8091426 1.8228561
-3.0384264 7.7901731 2.2280042
-1.4228399 7.8105965 1.2503697
-3.0190332 7.7844167 1.6145916
-1.3792586 7.5710645 0.67011368
-2.981539 7.7197089 1.0102735
-1.2575011 6.9154596 0.12197543
-2.9992323 7.7855558 0.43532571
-0.80807155 2.1092186 -0.19421667
-0.581236 1.520025 -0.25199398
-0.58822894 1.5334914 -0.37091017
-1.3930597 7.8092589 1.8217323
-3.0077312 7.7917209 2.2254193
-1.3955673 7.8155155 1.2503697
-2.9874384 7.783453 1.6122086
-1.351948 7.5709291 0.66967791
-2.9696577 7.7694659 1.015445
-1.2307266 6.9050417 0.12171389
-2.9738185 7.800642 0.43558723
-0.78650159 2.0747948 -0.1907369
-0.5776875 1.5266587 -0.25277537
-0.58200145 1.5332605 -0.37034822
-1.3657918 7.814074 1.8217311
-2.9779258 7.7954073 2.2234797
-1.3670027 7.8130422 1.2491966
-2.9567604 7.7846594 1.6103013
-1.3237979 7.5657887 0.66880542
-2.9433982 7.782105 1.0157479
-1.1963122 6.8501959 0.12066662
-2.9527485 7.827323 0.43650168
-0.77361709 2.0636828 -0.18943231
-0.57584471 1.5379061 -0.25433835
-0.57896584 1.5422177 -0.3720344
-1.3413804 7.8356023 1.8256645
-2.9472756 7.79672 2.2208948
-1.3393055 7.8153319 1.2488061
-2.929569 7.7949328 1.6103013
-1.2964786 7.5730443 0.66902328
-2.9144735 7.7876849 1.0151393
-1.1644721 6.8151102 0.11996912
-2.9100578 7.8006754 0.43440869
-0.75595707 2.0383716 -0.18682247
-0.56615108 1.5283414 -0.25238493
-0.56503183 1.5214179 -0.36641458
-1.3170707 7.8668962 1.8318456
-2.9161386 7.8006845 2.2189565
-1.3188028 7.868897 1.2566184
-2.8992672 7.8010187 1.6093479
-1.2696247 7.5750675 0.66880548
-2.8838201 7.7885051 1.0139225
-1.1410875 6.821599 0.12001274
-2.8819447 7.8084435 0.4342778
-0.74193454 2.0223076 -0.18508258
-0.55481875 1.5140959 -0.24965014
-0.5656448 1.5393696 -0.37034848
-1.298456 7.9168973 1.8425221
-2.8868968 7.8012547 2.2163715
-1.2927015 7.8732266 1.2566184
-2.869139 7.7990756 1.6069649
-1.2435777 7.5819111 0.66902333
-2.8531966 7.7892065 1.0127056
-1.1156354 6.8080773 0.11970762
-2.8500297 7.8015466 0.43336213
-0.73009372 2.0107219 -0.18377768
-0.32267076 1.981962 -0.3832117
-0.54953015 1.5160233 -0.24965015
-1.2704275 7.9189758 1.8419602
-2.8538272 7.7954121 2.2118483
-1.2722483 7.9215775 1.2636496
-2.8385355 7.7998204 1.6050589
-1.2176396 7.5810752 0.66858763
-2.8242965 7.7944536 1.0120971
-1.2691759 7.9201651 0.1392812
-2.8202298 7.8044033 0.4329696
-1.2619326 7.9013476 -0.41762969
-0.71848667 2.001673 -0.18269025
-0.31306601 1.9661081 -0.37987527
-0.54255474 1.5132883 -0.24886878
-1.2431545 7.9257689 1.8425223
-2.8224814 7.7939758 2.2086174
-1.2453542 7.9308496 1.2644309
-2.808794 7.8027544 1.603629
-1.1898454 7.5854874 0.66858768
-2.7953944 7.7995925 1.0114887
-1.2378234 7.909946 0.13901967
-2.7916067 7.8146882 0.43296951
-1.2329643 7.90592 -0.41762966
-0.8874017 2.4962366 -0.045673352
-0.69724375 1.9643004 -0.17899297
-0.31107643 1.9987183 -0.38607147
-0.53726894 1.5151731 -0.24886879
-0.53962046 1.5176944 -0.36360469
-1.2133607 7.9254556 1.8413985
-2.79145 7.7974472 2.2066786
-1.2155308 7.930479 1.2636496
-2.7760565 7.8014388 1.6012461
-1.1629834 7.5871315 0.66836983
-2.7664909 7.8046265 1.0108801
-1.2071871 7.8944502 0.13867094
-2.7609797 7.814971 0.43244621
-1.2053599 7.9101758 -0.41762963
-0.88118219 2.5063887 -0.045804366
-0.69536358 1.9808111 -0.18029793
-0.30079862 1.9779525 -0.38178182
-0.5311529 1.5147113 -0.24847811
-0.53187513 1.5126816 -0.36191878
-1.1867124 7.9270258 1.8408364
-2.7639623 7.8021097 2.2053864
-1.1884949 7.9295826 1.2628684
-2.7477219 7.8036585 1.5998164
-1.1364923 7.591145 0.66836989
-2.7367647 7.8072124 1.0099674
-1.0876355 7.2729359 0.12764178
-2.7325733 7.8170142 0.43205374
-1.1780202 7.9067206 -0.41723695
-0.87242794 2.5094495 -0.045804385
-0.68385708 1.9690008 -0.178993
-0.2953248 1.9887019 -0.38368833
-0.52830946 1.5235482 -0.2496502
-0.52685595 1.514437 -0.36191878
-1.1593865 7.9335313 1.8413985
-2.736711 7.8117104 2.2053864
-1.1611652 7.9361258 1.2632592
-2.7180405 7.806251 1.5983866
-1.1123929 7.6022654 0.66902345
-2.7062397 7.8073411 1.0087506
-2.6995523 7.8099928 0.43113804
-0.8628462 2.5101168 -0.04576074
-0.67256713 1.9597249 -0.17790559
-0.28908032 1.9945788 -0.38464153
-0.5189501 1.5137155 -0.24769676
-0.51890552 1.5094538 -0.36023283
-1.1309998 7.9327064 1.8402747
-2.705467 7.8098073 2.2021551
-1.1324108 7.9327965 1.2620873
-2.686774 7.804091 1.5960037
-1.0827671 7.5939636 0.6679343
-2.6789706 7.81674 1.0087504
-1.0900211 7.6641273 0.13439889
-2.6709087 7.8198347 0.43113795
-1.0703677 7.55404 -0.39812881
-0.8556959 2.5178442 -0.04584809
-0.66572237 1.9620606 -0.1779056
-0.27938712 1.9761333 -0.3808285
-0.51845974 1.5295357 -0.25004089
-0.51679617 1.5204724 -0.36248076
-1.1019175 7.9367981 1.8402748
-2.6760414 7.8173876 2.201509
-1.1019708 7.9271111 1.260525
-2.6589446 7.8162098 1.5964803
-1.0559103 7.5952301 0.66771644
-2.6476805 7.8142948 1.0072294
-1.0941042 7.890728 0.13832235
-2.6371961 7.8101902 0.43009147
-1.0866154 7.8668776 -0.41448843
-0.84770203 2.5231841 -0.045891773
-0.65647757 1.9572941 -0.17725314
-0.27148944 1.9698019 -0.37939861
-0.50995237 1.5219797 -0.24847816
-0.51226819 1.524574 -0.3630428
-1.0749394 7.9355807 1.839151
-2.6454477 7.8124952 2.1976321
-1.0760089 7.9331684 1.2609155
-2.6298745 7.8156815 1.594574
-1.0293918 7.5988693 0.6677165
-2.6180196 7.8164315 1.0063167
-2.6089056 7.81179 0.42969897
-0.83492982 2.5142732 -0.045673467
-0.64366788 1.9405637 -0.17551327
-0.50776899 1.5331179 -0.25004092
-0.5048846 1.5193359 -0.36135682
-1.0472325 7.9392848 1.839151
-2.6166255 7.817102 2.1963396
-1.0476649 7.9319792 1.2601343
-2.6033525 7.8271413 1.5950503
-1.0038618 7.599772 0.66749871
-2.5891566 7.8208122 1.0057082
-0.79045492 5.9971414 0.10488606
-2.5808377 7.8184791 0.42956817
-0.787992 6.0026584 -0.3155452
-0.82614827 2.5171723 -0.045673482
-0.6373319 1.9452748 -0.17573076
-0.50318927 1.5372254 -0.25043163
-0.50084561 1.5258008 -0.36248079
-1.0188941 7.9380584 1.8380272
-2.589323 7.8261886 2.1963396
-1.018714 7.9257908 1.2585719
-2.5744796 7.8315191 1.5940974
-0.97473472 7.5935187 0.66662735
-2.5618412 7.829802 1.0057081
-0.76688522 5.9876013 0.10466813
-2.5506136 7.8231392 0.42930648
-0.76409543 5.9906468 -0.31475988
-0.81735665 2.520041 -0.045673501
-0.62899262 1.9427522 -0.1752958
-0.49321979 1.5248892 -0.24808751
-0.49551651 1.5275397 -0.36248082
-0.99069476 7.9489918 1.8397129
-2.5576155 7.8264465 2.1937549
-0.98996305 7.9319224 1.2589626
-2.5427217 7.8315673 1.5921911
-0.94914591 7.6042891 0.66728097
-2.5276117 7.8174515 1.0029702
-0.74844474 6.0100861 0.10501691
-2.5202224 7.8224912 0.42878321
-0.74563098 6.0130997 -0.31580687
-0.80625391 2.5157413 -0.04554252
-0.62679279 1.9591584 -0.17660074
-0.49320379 1.5430509 -0.25082234
-0.49018139 1.5292603 -0.36248082
-0.96403712 7.9498158 1.8391511
-2.5301607 7.8302898 2.1924624
-0.96395153 7.9376121 1.2593533
-2.5144832 7.8329487 1.5907614
-0.9219979 7.6026111 0.66684526
-2.4987957 7.8215008 1.0023619
-0.72731102 6.0026088 0.10484258
-2.4919913 7.8236709 0.42839074
-0.84556335 7.0119753 -0.36841941
-0.79822612 2.5209222 -0.045586199
-0.6180234 1.9541074 -0.17594829
-0.49104866 1.5494376 -0.36697671
-0.93542868 7.9458742 1.8374655
-2.5013406 7.8344736 2.19117
-0.93566126 7.9360242 1.258572
-2.4863825 7.8393383 1.5902846
-0.89649063 7.6031537 0.66662753
-2.4677367 7.8183451 1.0008408
-0.70635355 6.0051112 0.10484263
-2.4661679 7.8370838 0.42865235
-0.82745183 7.069438 -0.37129864
-0.7891112 2.5211709 -0.045542542
-0.61269462 1.9610035 -0.17638327
-0.49151358 1.5697234 -0.3714726
-0.90823817 7.9539309 1.8385893
-2.4696109 7.829339 2.1872931
-0.90823382 7.9416962 1.2589628
-2.459003 7.84797 1.5902846
-0.90580529 7.9204893 0.69429481
-2.438951 7.822175 1.0002323
-0.68934292 6.0423102 0.10545298
-2.4358265 7.8361101 0.42812908
-0.80136538 7.0598803 -0.37064421
-0.78104848 2.5262973 -0.045586221
-0.60584575 1.9631304 -0.17638327
-0.48239896 1.5598036 -0.36866269
-0.87966651 7.949789 1.8369036
-2.4422662 7.8379116 2.1872931
-0.87996382 7.939909 1.2581817
-2.4294131 7.849474 1.588855
-0.88116312 7.9508328 0.69669127
-2.4109001 7.8282695 0.999928
-2.4069903 7.8397918 0.42786741
-0.77644467 7.0601525 -0.37051329
-0.76884884 2.5195847 -0.045411576
-0.60083961 1.9724802 -0.17703575
-0.8526879 7.9600778 1.8385894
-2.4120455 7.8371592 2.1847081
-0.85303152 7.9502978 1.2593535
-2.3984046 7.8461728 1.5864722
-0.85201597 7.9540091 0.69669133
-2.3821127 7.8318901 0.99931955
-0.79937911 7.4862275 0.13069393
-2.3775148 7.8461733 0.42773655
-0.75108898 7.0679164 -0.37077498
-0.75134444 2.4935486 -0.044887617
-0.59033698 1.9626491 -0.17594832
-0.82300723 7.9583039 1.8374658
-2.3826015 7.8436365 2.184062
-0.82312512 7.9460025 1.2581818
-2.3682106 7.8502121 1.585519
-0.82450217 7.9594121 0.69690919
-2.3540447 7.8377814 0.99901539
-0.77170604 7.4740534 0.13043243
-2.3486781 7.8496413 0.42747492
-0.72768497 7.0829129 -0.37142929
-0.74550396 2.5057342 -0.045062281
-0.58634019 1.9742411 -0.1768183
-0.59764916 2.0095363 -0.32622522
-0.79685402 7.9634123 1.8380277
-2.3565781 7.8514943 2.184062
-0.7970165 7.9511447 1.2585723
-2.3421652 7.8580222 1.585519
-0.79597163 7.9548063 0.69625568
-2.3252578 7.8411932 0.99840695
-0.74592561 7.4666219 0.13025813
-2.3205078 7.8502049 0.42708245
-0.70443946 7.0877714 -0.37156013
-0.73462677 2.5011303 -0.0449313
-0.58756179 2.0024447 -0.17921066
-0.58572453 1.995036 -0.32349041
-0.76881838 7.9637213 1.8374659
-2.3243449 7.8434668 2.1795387
-0.76854569 7.9465055 1.2574006
-2.3119452 7.8567348 1.5836127
-0.76958823 7.9574027 0.6962558
-2.2957773 7.8421192 0.99749434
-0.72009677 7.4716678 0.13030179
